199
91
-14.234116 -16.785873 0.500443 0.484718 127 136 133
-14.230148 -16.781204 0.556717 0.483680 137 149 148
-14.234390 -16.786209 0.614090 0.483070 129 138 141
-14.234177 -16.785995 0.671005 0.484962 126 138 135
-14.233749 -16.785538 0.727859 0.484596 123 134 132
-14.234695 -16.786667 0.785110 0.484474 121 137 138
-14.230484 -16.781693 0.841446 0.494911 132 143 143
-14.232773 -16.784378 0.898300 0.483680 123 134 134
-14.235825 -16.787949 0.956192 0.484169 116 127 124
-14.234360 -16.786240 1.012405 0.485145 136 147 145
-14.236099 -16.788284 1.069870 0.484718 125 136 135
-14.235062 -16.787064 1.127182 0.484291 125 135 131
-14.238297 -16.790878 1.183334 0.493446 124 133 132
-14.234177 -16.785995 1.239059 0.484352 137 151 150
-14.234970 -16.786911 1.295212 0.483864 124 133 136
-14.234695 -16.786606 1.350845 0.484718 125 136 134
-14.234085 -16.785904 1.406815 0.485145 131 143 143
-14.238693 -16.791336 1.466232 0.484413 122 131 134
-14.237869 -16.790421 1.521500 0.484230 122 131 131
-6.770554 -7.950333 -1.718185 0.422461 71 71 77
-6.877609 -8.075729 -1.716385 0.446204 73 71 76
-6.981094 -8.197037 -1.715073 0.416419 75 73 79
-7.093979 -8.329300 -1.713181 0.417395 78 74 80
-7.209030 -8.464127 -1.711075 0.450355 99 97 101
-7.335983 -8.612930 -1.710739 0.417639 72 70 75
-7.469162 -8.769058 -1.710953 0.411719 50 45 49
-7.596970 -8.918808 -1.709488 0.415625 59 54 60
-7.736374 -9.082199 -1.709518 0.417273 63 59 65
-7.861771 -9.229172 -1.705826 0.420020 74 68 74
-8.004623 -9.396591 -1.705521 0.414099 73 69 76
-8.144699 -9.560776 -1.702774 0.438392 54 49 53
-8.296280 -9.738480 -1.700668 0.412207 51 46 49
-8.447342 -9.915512 -1.697495 0.415625 47 43 45
-8.610886 -10.107224 -1.695450 0.413855 49 44 48
-8.782242 -10.308029 -1.693680 0.412573 49 45 48
-8.961716 -10.518387 -1.692154 0.413306 46 43 45
-9.132126 -10.718124 -1.687363 0.415808 51 45 49
-9.325394 -10.944656 -1.685532 0.413611 54 54 56
-9.493790 -11.142075 -1.677872 0.418677 63 58 61
-9.718704 -11.405685 -1.678360 0.416175 55 50 55
-9.948929 -11.675583 -1.678146 0.415381 46 41 44
-10.188736 -11.956650 -1.677567 0.417945 42 39 41
-10.411514 -12.217728 -1.672348 0.418799 68 63 66
-10.697403 -12.552811 -1.675247 0.416907 47 43 45
-10.984726 -12.889633 -1.676254 0.416419 41 35 40
-11.236465 -13.184738 -1.669510 0.423560 54 52 55
-11.506393 -13.501144 -1.663589 0.415930 43 38 42
-11.807571 -13.854172 -1.659164 0.426368 43 37 37
-12.127457 -14.229080 -1.655533 0.412390 34 29 29
-12.150589 -14.256210 -1.610092 0.451331 53 49 46
-12.158737 -14.265793 -1.562057 0.447852 76 72 69
-12.164078 -14.272110 -1.514450 0.451514 130 126 117
-12.503860 -14.670334 -1.506577 0.452979 136 134 122
-12.864944 -15.093613 -1.498367 0.456275 122 123 115
-13.252792 -15.548203 -1.490982 0.455787 115 112 105
-13.666794 -16.033463 -1.482407 0.455482 105 106 100
-14.116867 -16.561020 -1.474625 0.420264 31 22 23
-14.257095 -16.725388 -1.432724 0.484291 50 48 49
-14.255234 -16.723282 -1.374985 0.485023 43 41 44
-14.261002 -16.730087 -1.318802 0.484779 39 34 40
-14.259964 -16.728928 -1.262070 0.495399 32 32 34
-14.255905 -16.724167 -1.204300 0.484047 29 27 30
-14.262436 -16.731857 -1.148056 0.483558 26 21 25
-14.262527 -16.731979 -1.091354 0.484596 23 19 20
-14.218979 -16.680954 -1.031052 0.480873 22 18 19
-13.930649 -16.343002 -0.954605 0.520165 30 26 27
-14.218033 -16.679916 -0.917496 0.483680 18 18 21
-13.818863 -16.212051 -0.836777 0.482948 91 97 99
-13.814255 -16.206680 -0.781235 0.485206 85 92 94
-13.816208 -16.208969 -0.726273 0.484535 61 62 66
-13.798813 -16.188583 -0.670547 0.484047 91 101 108
-13.798965 -16.188797 -0.615128 0.482887 107 126 119
-13.798691 -16.188553 -0.560532 0.524681 222 220 244
-13.795151 -16.184433 -0.505661 0.526085 229 254 248
-13.798386 -16.188248 -0.450150 0.523949 216 228 248
-13.798935 -16.188919 -0.395676 0.412085 127 141 164
-13.797806 -16.187637 -0.340866 0.523827 231 252 241
-13.799576 -16.189713 -0.285263 0.506554 177 183 119
-13.801682 -16.192215 -0.230972 0.503075 150 141 86
-13.799332 -16.189468 -0.175858 0.504540 100 117 71
-13.798508 -16.188553 -0.120529 0.484779 130 136 112
-14.270370 -16.741623 -0.068375 0.494057 134 145 141
-14.263107 -16.733139 -0.011215 0.488930 133 147 139
-14.260147 -16.729630 0.045700 0.486976 138 149 142
-14.265671 -16.736160 0.101913 0.494728 135 146 142
-14.269058 -16.740128 0.159256 0.498329 140 153 149
-14.265060 -16.735489 0.215927 0.488991 130 143 138
-14.267593 -16.738510 0.272568 0.500023 134 149 142
-14.267624 -16.738541 0.329819 0.484840 133 147 142
-14.269638 -16.740891 0.386276 0.493324 142 159 153
-14.265488 -16.736038 0.443039 0.494057 136 148 148
-14.268936 -16.740097 0.500137 0.486000 127 138 136
-14.270615 -16.742081 0.556808 0.484230 128 141 139
-14.266281 -16.737015 0.613632 0.483009 138 149 148
-14.266495 -16.737259 0.670517 0.484962 134 145 142
-14.270676 -16.742172 0.727493 0.484291 131 143 145
-14.270065 -16.741440 0.784897 0.484779 128 140 138
-14.266281 -16.736984 0.841080 0.484779 129 141 139
-14.266281 -16.736984 0.897781 0.483925 112 123 125
-14.271042 -16.742569 0.955765 0.483742 118 130 129
-14.271805 -16.743484 1.012253 0.484779 134 145 142
-14.271011 -16.742569 1.069290 0.486671 130 141 140
-14.271683 -16.743362 1.126633 0.484779 133 142 140
-14.269760 -16.741043 1.182236 0.484535 130 143 140
-14.269333 -16.740555 1.238449 0.492592 132 143 141
-14.271683 -16.743301 1.294754 0.485084 117 128 126
-14.270798 -16.742294 1.350327 0.484779 126 135 135
-14.272293 -16.744064 1.406448 0.485695 127 140 142
-14.267136 -16.738022 1.464859 0.484596 125 133 137
-14.271530 -16.743149 1.520462 0.484779 117 123 127
-6.793472 -7.935928 -1.718887 0.439673 64 64 70
-6.899673 -8.059769 -1.716782 0.439796 80 78 85
-7.005142 -8.182724 -1.715775 0.420874 76 74 80
-7.115799 -8.311783 -1.713242 0.419165 68 64 70
-7.234085 -8.449661 -1.711868 0.449744 85 84 89
-7.355240 -8.590958 -1.710129 0.420081 67 66 73
-7.489151 -8.747086 -1.710403 0.411170 54 51 56
-7.619614 -8.899185 -1.709427 0.421118 56 53 59
-7.751511 -9.052963 -1.707809 0.439490 66 62 68
-7.887314 -9.211288 -1.706284 0.418311 75 72 78
-8.029648 -9.377274 -1.705643 0.416419 73 69 74
-8.172775 -9.544174 -1.703354 0.415259 56 50 55
-8.324234 -9.720749 -1.701248 0.412390 54 48 54
-8.475876 -9.897598 -1.698227 0.412818 46 43 46
-8.630539 -10.077896 -1.694290 0.414221 46 41 45
-8.801254 -10.276962 -1.692184 0.417639 56 51 55
-8.993362 -10.500992 -1.692947 0.413367 45 40 44
-9.164719 -10.700821 -1.688217 0.410437 49 44 47
-9.353195 -10.920578 -1.685440 0.417762 54 49 53
-9.519180 -11.114151 -1.677170 0.418555 58 53 56
-9.743668 -11.375900 -1.677597 0.417762 56 54 56
-9.978928 -11.650192 -1.678177 0.414832 45 42 46
-10.217056 -11.927902 -1.677200 0.415991 42 37 42
-10.446640 -12.195633 -1.672989 0.417090 59 53 53
-10.730576 -12.526718 -1.675339 0.419715 40 36 37
-11.022018 -12.866562 -1.676773 0.416236 37 33 35
-11.281967 -13.169662 -1.671188 0.419654 55 50 50
-11.538010 -13.468216 -1.663040 0.416846 37 35 38
-11.851730 -13.834030 -1.660385 0.419959 42 38 37
-12.206741 -14.248001 -1.661392 0.418006 42 38 37
-12.330093 -14.391861 -1.628952 0.451514 44 40 37
-12.330734 -14.392654 -1.579300 0.450477 60 57 52
-12.357864 -14.424332 -1.533829 0.448585 67 63 62
-12.544418 -14.641891 -1.506973 0.445167 120 117 108
-12.921494 -15.081619 -1.500504 0.455421 107 112 106
-13.300217 -15.523209 -1.491714 0.454994 112 112 104
-13.712112 -16.003525 -1.482681 0.462013 111 114 107
-14.175064 -16.543381 -1.476303 0.443641 27 23 22
-14.286392 -16.673233 -1.431381 0.485084 45 41 42
-14.293716 -16.681839 -1.374588 0.484901 41 36 40
-14.298264 -16.687149 -1.318192 0.484047 33 31 34
-14.294144 -16.682327 -1.261307 0.483803 33 28 32
-14.293381 -16.681442 -1.203812 0.484596 31 26 30
-14.298660 -16.687668 -1.147568 0.483436 27 23 24
-14.296188 -16.684830 -1.090469 0.484291 24 19 23
-14.294632 -16.683060 -1.033371 0.483864 22 17 23
-14.042221 -16.388779 -0.959305 0.454871 17 16 18
-14.301010 -16.690567 -0.920059 0.483864 25 17 22
-13.853836 -16.169144 -0.836288 0.482399 96 100 105
-13.852066 -16.167099 -0.780869 0.484291 86 92 95
-13.853378 -16.168686 -0.726151 0.483803 48 47 53
-13.837357 -16.150040 -0.670547 0.483131 94 106 106
-13.833969 -16.146103 -0.614975 0.482887 134 146 145
-13.831467 -16.143234 -0.560074 0.521508 184 160 187
-13.833145 -16.145187 -0.505447 0.520165 239 253 248
-13.830734 -16.142380 -0.449722 0.482216 127 125 124
-13.832687 -16.144669 -0.395432 0.413489 175 195 185
-13.833969 -16.146194 -0.340591 0.522118 245 253 250
-13.834183 -16.146469 -0.285110 0.507591 181 179 121
-13.832932 -16.145065 -0.230728 0.508080 151 166 110
-13.832108 -16.144119 -0.175705 0.484352 100 82 63
-13.835312 -16.147873 -0.120407 0.492775 129 135 118
-14.305923 -16.696640 -0.068436 0.484230 126 138 134
-14.301224 -16.691208 -0.011215 0.484291 133 146 138
-14.306259 -16.697067 0.045731 0.493874 138 149 145
-14.304855 -16.695450 0.102036 0.484901 135 148 139
-14.298874 -16.688492 0.159317 0.485328 127 141 135
-14.303452 -16.693863 0.215866 0.484474 134 148 139
-14.304489 -16.695053 0.272415 0.495949 131 142 135
-14.303818 -16.694260 0.329666 0.485084 132 143 138
-14.303146 -16.693497 0.386185 0.487160 130 140 132
-14.307358 -16.698410 0.442947 0.487587 129 141 141
-14.302292 -16.692520 0.499832 0.484413 124 137 135
-14.303116 -16.693497 0.556381 0.484535 126 136 135
-14.300247 -16.690140 0.613602 0.485023 152 164 162
-14.308365 -16.699600 0.670517 0.498085 140 152 151
-14.304459 -16.695053 0.727097 0.496132 146 159 157
-14.305313 -16.696030 0.784439 0.502037 138 153 149
-14.305740 -16.696609 0.840988 0.492836 137 150 148
-14.308395 -16.699661 0.897812 0.484535 127 137 130
-14.306808 -16.697830 0.955276 0.484474 117 127 127
-14.304550 -16.695175 1.011429 0.484718 144 156 151
-14.309830 -16.701340 1.069046 0.503929 143 154 146
-14.304855 -16.695541 1.125961 0.500938 139 152 148
-14.307144 -16.698196 1.181931 0.499245 142 157 149
-14.306870 -16.697861 1.238022 0.496193 133 145 144
-14.303116 -16.693497 1.293777 0.484840 125 134 133
-14.304916 -16.695602 1.349503 0.502159 131 142 143
-14.307327 -16.698410 1.405685 0.485267 135 151 149
-14.305588 -16.696365 1.464401 0.485023 135 148 150
-14.310562 -16.702225 1.520248 0.497292 134 145 148
-6.814957 -7.919968 -1.719101 0.421118 70 70 75
-6.920547 -8.042435 -1.716873 0.422950 70 69 74
-7.022110 -8.160263 -1.714798 0.419104 71 68 74
-7.141464 -8.298721 -1.714279 0.424536 73 67 74
-7.255081 -8.430466 -1.711624 0.450904 83 83 92
-7.382706 -8.578476 -1.711349 0.420874 74 72 76
-7.508926 -8.724869 -1.709824 0.412085 53 48 52
-7.641678 -8.878891 -1.709305 0.418433 61 53 59
-7.777573 -9.036545 -1.708389 0.418433 69 68 73
-7.907516 -9.187271 -1.705582 0.438636 74 67 74
-8.045700 -9.347549 -1.703995 0.443091 74 69 74
-8.195938 -9.521805 -1.703140 0.414282 58 53 58
-8.342636 -9.691971 -1.699875 0.413367 52 47 53
-8.501907 -9.876724 -1.698318 0.413306 49 43 47
-8.659286 -10.059341 -1.694839 0.410437 48 44 46
-8.826492 -10.253281 -1.692032 0.417456 61 55 57
-9.021652 -10.479691 -1.693192 0.414038 51 46 49
-9.191574 -10.676804 -1.688217 0.413794 52 47 51
-9.379623 -10.894943 -1.685257 0.413611 54 49 54
-9.546707 -11.088730 -1.677078 0.418128 57 51 53
-9.776138 -11.354874 -1.678055 0.414221 52 49 51
-10.001419 -11.616226 -1.676743 0.415503 49 44 48
-10.254379 -11.909653 -1.678207 0.413001 42 38 40
-10.484390 -12.176529 -1.673965 0.413916 44 39 42
-10.759995 -12.496231 -1.674881 0.425635 34 28 32
-11.056046 -12.839645 -1.677078 0.418738 35 31 32
-11.317978 -13.143509 -1.671646 0.417945 53 52 50
-11.579361 -13.446762 -1.664078 0.416236 34 33 38
-11.891220 -13.808578 -1.660873 0.416541 36 35 31
-12.220596 -14.190659 -1.658005 0.419471 55 54 49
-12.517044 -14.534592 -1.648758 0.445106 40 36 37
-12.536545 -14.557236 -1.601883 0.453407 55 51 50
-12.545181 -14.567245 -1.552536 0.448035 56 52 49
-12.603409 -14.634811 -1.509384 0.444312 103 100 91
-12.953964 -15.041489 -1.499527 0.449744 125 126 118
-13.346115 -15.496414 -1.492264 0.456092 113 113 105
-13.765823 -15.983353 -1.484116 0.456153 93 94 88
-14.211838 -16.500748 -1.475754 0.452613 22 20 21
-14.327560 -16.635025 -1.431320 0.490211 40 40 40
-14.328140 -16.635727 -1.373856 0.490700 55 55 57
-14.330917 -16.638992 -1.317184 0.483803 65 65 65
-14.329147 -16.636978 -1.260452 0.484596 88 89 91
-14.335190 -16.644028 -1.203751 0.483375 93 97 98
-14.332108 -16.640488 -1.146652 0.484779 96 100 103
-13.893875 -16.132156 -1.056534 0.520165 100 105 109
-13.887283 -16.124527 -1.000839 0.483375 95 105 104
-13.886246 -16.123337 -0.945755 0.483742 94 105 105
-13.887802 -16.125168 -0.890945 0.483986 91 100 99
-13.885300 -16.122269 -0.835800 0.483864 92 102 103
-13.888962 -16.126541 -0.780777 0.483497 85 93 95
-13.888077 -16.125534 -0.725632 0.483253 52 56 59
-13.868484 -16.102859 -0.669907 0.483314 96 111 111
-13.869583 -16.104141 -0.614578 0.482887 134 161 148
-13.866226 -16.100235 -0.559860 0.524559 233 249 248
-13.865341 -16.099258 -0.505020 0.414588 229 252 244
-13.865707 -16.099716 -0.449600 0.506554 137 111 107
-13.865616 -16.099625 -0.395187 0.527733 169 143 155
-13.864578 -16.098465 -0.340286 0.516869 239 251 251
-13.867172 -16.101517 -0.284805 0.506065 108 118 99
-13.867722 -16.102127 -0.230637 0.505333 110 120 102
-13.868057 -16.102554 -0.175552 0.411048 97 104 89
-13.866959 -16.101273 -0.120285 0.494301 94 104 95
-14.334061 -16.643204 -0.068253 0.484230 131 141 141
-14.333542 -16.642624 -0.011215 0.484596 126 138 134
-14.338730 -16.648636 0.045639 0.495460 143 155 149
-14.339615 -16.649673 0.101974 0.487953 139 153 147
-14.340683 -16.650925 0.159256 0.495521 147 161 156
-14.335831 -16.645309 0.215744 0.485206 133 147 141
-14.338516 -16.648422 0.272324 0.484718 131 144 135
-14.339706 -16.649887 0.329605 0.484535 127 138 129
-14.342636 -16.653275 0.386154 0.484779 137 148 141
-14.334457 -16.643784 0.442825 0.484657 141 152 151
-14.340317 -16.650589 0.499802 0.484169 134 146 145
-14.337418 -16.647263 0.556046 0.485817 137 149 145
-14.341324 -16.651810 0.613388 0.484413 145 159 157
-14.335159 -16.644669 0.669815 0.484596 130 141 140
-14.335342 -16.644882 0.726364 0.484596 130 143 141
-14.342209 -16.652878 0.784195 0.496803 135 149 145
-14.338821 -16.648911 0.840561 0.497780 140 154 149
-14.338669 -16.648727 0.897202 0.484962 119 130 129
-14.340408 -16.650742 0.953964 0.483864 125 137 137
-14.343643 -16.654495 1.010910 0.484962 142 153 149
-14.338669 -16.648758 1.068100 0.483497 127 139 135
-14.341629 -16.652176 1.125656 0.493019 130 144 142
-14.337967 -16.647964 1.181076 0.485206 129 142 142
-14.341263 -16.651779 1.237473 0.489906 134 147 144
-14.341599 -16.652176 1.293411 0.488624 128 138 138
-14.341415 -16.651932 1.348984 0.485328 132 142 144
-14.342087 -16.652786 1.404953 0.491249 136 148 149
-14.341629 -16.652237 1.463669 0.485023 136 151 152
-14.341110 -16.651627 1.518997 0.495888 137 150 153
-6.833450 -7.900558 -1.718674 0.420508 68 69 74
-6.938492 -8.021744 -1.716080 0.442481 69 67 72
-7.044601 -8.144180 -1.715164 0.445106 71 69 75
-7.158951 -8.276108 -1.713394 0.415869 72 67 73
-7.277390 -8.412796 -1.711868 0.448402 89 89 94
-7.399918 -8.554214 -1.710312 0.416358 74 72 76
-7.529129 -8.703354 -1.709366 0.414221 55 51 55
-7.665359 -8.860550 -1.709427 0.418250 55 53 56
-7.797379 -9.012863 -1.707535 0.418921 64 61 65
-7.932175 -9.168411 -1.705704 0.427955 69 66 70
-8.073441 -9.331436 -1.704819 0.417517 69 65 70
-8.217392 -9.497574 -1.702591 0.415320 57 52 58
-8.371872 -9.675858 -1.700760 0.414038 52 46 52
-8.525955 -9.853653 -1.697952 0.411841 48 42 47
-8.681656 -10.033371 -1.694199 0.406165 48 43 47
-8.846909 -10.224045 -1.690933 0.440528 61 55 58
-9.045609 -10.453354 -1.692764 0.414282 50 46 49
-9.213181 -10.646744 -1.687149 0.413489 49 44 47
-9.408798 -10.872543 -1.685410 0.412268 53 48 51
-9.578018 -11.067825 -1.677567 0.418006 53 47 53
-9.803116 -11.327652 -1.677750 0.416175 49 44 48
-10.032303 -11.592148 -1.676987 0.412879 47 41 47
-10.275925 -11.873306 -1.676743 0.411353 38 34 36
-10.485458 -12.115128 -1.669205 0.429603 31 26 26
-10.799759 -12.477829 -1.676102 0.412390 26 22 23
-11.093033 -12.816299 -1.677597 0.415015 33 27 31
-11.351120 -13.114151 -1.671494 0.413611 42 40 41
-11.630356 -13.436478 -1.666489 0.413428 22 16 21
-11.923233 -13.774490 -1.660446 0.415991 27 22 26
-10.590408 -12.236343 -1.432693 0.405554 19 12 19
-10.580826 -12.225296 -1.389603 0.409033 23 18 22
-10.572617 -12.215836 -1.346237 0.407874 18 13 17
-10.546707 -12.185989 -1.301468 0.401770 15 10 14
0 0 0 0.500000 0 0 0
0 0 0 0.500000 0 0 0
0 0 0 0.500000 0 0 0
0 0 0 0.500000 0 0 0
0 0 0 0.500000 0 0 0
-10.687790 -12.348953 -1.064621 0.407202 38 32 32
-13.917892 -16.076675 -1.330582 0.483925 68 67 65
-13.918961 -16.077927 -1.275711 0.483986 85 91 87
-13.921555 -16.080978 -1.221115 0.482216 92 101 98
-13.917343 -16.076126 -1.165146 0.483619 95 103 105
-13.918564 -16.077560 -1.110245 0.483558 96 106 107
-13.921982 -16.081558 -1.055710 0.482399 93 103 104
-13.921829 -16.081375 -1.000381 0.482704 97 107 109
-13.920120 -16.079453 -0.945267 0.483742 94 104 105
-13.921036 -16.080551 -0.890213 0.483925 96 102 100
-13.919754 -16.079086 -0.835251 0.484047 94 103 102
-13.919693 -16.079056 -0.780075 0.484291 85 94 93
-13.919479 -16.078873 -0.725143 0.483864 49 52 55
-13.901413 -16.058029 -0.669479 0.484108 98 105 108
-13.899948 -16.056381 -0.614182 0.484352 99 108 110
-13.900742 -16.057327 -0.559525 0.518517 181 197 192
-13.898300 -16.054520 -0.504623 0.525170 135 149 154
-13.899857 -16.056320 -0.449142 0.520897 142 156 143
-13.898819 -16.055161 -0.394943 0.524376 204 205 202
-13.898331 -16.054611 -0.340164 0.527916 202 214 219
-13.900558 -16.057205 -0.284744 0.483375 99 110 114
-13.902908 -16.059921 -0.230576 0.481788 97 113 111
-13.902145 -16.059067 -0.175491 0.483314 101 113 118
-13.900864 -16.057632 -0.120316 0.483864 111 121 122
-14.373245 -16.602798 -0.068222 0.484413 136 146 138
-14.369949 -16.599045 -0.011002 0.484596 128 140 135
-14.371109 -16.600418 0.045822 0.484779 147 161 153
-14.372726 -16.602280 0.101913 0.488014 138 153 146
-14.375992 -16.606094 0.159164 0.485267 138 150 146
-14.369339 -16.598434 0.215744 0.484352 136 149 144
-14.374588 -16.604477 0.272415 0.484901 129 140 139
-14.372757 -16.602341 0.329391 0.484291 131 145 139
-14.376968 -16.607224 0.385910 0.483803 133 146 136
-14.372238 -16.601822 0.442581 0.491554 140 153 152
-14.370560 -16.599869 0.499374 0.484840 128 144 141
-14.372177 -16.601730 0.555893 0.493263 134 148 146
-14.373734 -16.603500 0.612991 0.491188 141 151 150
-14.371994 -16.601517 0.669540 0.484230 129 141 137
-14.376053 -16.606216 0.726517 0.484718 126 137 134
-14.375595 -16.605667 0.783676 0.484840 136 149 144
-14.377487 -16.607864 0.840256 0.491310 137 151 145
-14.374374 -16.604294 0.896591 0.484840 123 133 132
-14.370926 -16.600327 0.953995 0.484962 128 140 139
-14.375809 -16.605942 1.010544 0.492103 147 162 160
-14.372910 -16.602615 1.067490 0.483558 128 139 139
-14.371078 -16.600510 1.124588 0.487709 129 141 136
-14.371689 -16.601212 1.180344 0.497108 135 148 144
-14.379135 -16.609787 1.237106 0.495888 133 145 142
-14.380051 -16.610855 1.293076 0.492409 133 146 147
-14.377426 -16.607834 1.348404 0.498268 133 147 149
-14.377243 -16.607590 1.404282 0.493019 131 144 142
-14.377579 -16.607986 1.463150 0.484474 130 144 144
-14.375381 -16.605484 1.518143 0.490761 128 142 145
-6.854233 -7.883896 -1.718826 0.418494 69 66 71
-6.959854 -8.005142 -1.716293 0.418677 70 67 73
-7.065445 -8.126389 -1.715164 0.442115 73 69 74
-7.182205 -8.260452 -1.713943 0.417762 74 72 76
-7.299850 -8.395493 -1.712112 0.422034 98 96 101
-7.425919 -8.540207 -1.711197 0.419165 78 77 80
-7.558456 -8.692368 -1.710831 0.414160 65 61 67
-7.684891 -8.837479 -1.708694 0.416297 60 55 61
-7.818649 -8.991043 -1.707199 0.439979 65 62 67
-7.953812 -9.146225 -1.705307 0.418860 67 64 68
-8.093094 -9.306137 -1.703781 0.443519 69 63 69
-8.239975 -9.474777 -1.702225 0.420691 63 58 60
-8.395676 -9.653549 -1.700607 0.414343 53 48 53
-8.551865 -9.832870 -1.698166 0.412512 56 50 56
-8.706375 -10.010269 -1.694016 0.407996 51 45 50
-8.879501 -10.209061 -1.692123 0.410925 73 67 70
-9.062820 -10.419510 -1.691025 0.415259 50 47 49
-9.241135 -10.624252 -1.687302 0.413611 48 42 43
-9.435959 -10.847946 -1.685287 0.415625 56 51 51
-9.612930 -11.051132 -1.678665 0.413733 52 48 50
-9.834702 -11.305740 -1.678299 0.412329 44 41 42
-10.059769 -11.564133 -1.676743 0.415930 45 41 42
-10.314285 -11.856369 -1.678146 0.414710 40 36 38
-10.540421 -12.116013 -1.672989 0.414588 28 24 26
-10.827835 -12.445999 -1.675491 0.415808 20 16 17
-11.119217 -12.780563 -1.676620 0.421118 19 14 18
-10.825577 -12.443466 -1.589462 0.417639 18 13 17
-10.801987 -12.416428 -1.543259 0.416480 17 12 17
-10.540268 -12.115982 -1.463669 0.390723 20 18 21
0 0 0 0.500000 0 0 0
-10.570877 -12.151138 -1.384201 0.393347 25 20 24
0 0 0 0.500000 0 0 0
0 0 0 0.500000 0 0 0
0 0 0 0.500000 0 0 0
0 0 0 0.500000 0 0 0
0 0 0 0.500000 0 0 0
0 0 0 0.500000 0 0 0
0 0 0 0.500000 0 0 0
0 0 0 0.500000 0 0 0
0 0 0 0.500000 0 0 0
0 0 0 0.500000 0 0 0
-13.957718 -16.039963 -1.220596 0.481178 47 46 51
-13.953568 -16.035202 -1.164688 0.484352 96 100 99
-13.955399 -16.037338 -1.109909 0.483070 95 101 101
-13.953018 -16.034622 -1.054886 0.484474 97 103 103
-13.957138 -16.039413 -1.000015 0.481605 99 105 105
-13.954971 -16.036942 -0.944839 0.483314 98 107 106
-13.956192 -16.038406 -0.889877 0.483742 97 103 101
-13.954147 -16.036057 -0.834763 0.483864 99 105 103
-13.956772 -16.039108 -0.779861 0.483558 87 97 98
-13.950272 -16.031693 -0.724594 0.483314 54 60 60
-13.934982 -16.014175 -0.669083 0.483864 100 109 111
-13.935745 -16.015060 -0.613815 0.483131 100 111 112
-13.936752 -16.016220 -0.559372 0.483131 106 116 121
-13.935562 -16.014908 -0.504593 0.483253 98 112 113
-13.933151 -16.012131 -0.449051 0.484230 92 116 112
-13.938980 -16.018845 -0.394791 0.470985 95 118 122
-13.935379 -16.014755 -0.339859 0.483619 100 113 114
-13.935257 -16.014633 -0.284531 0.483742 99 114 116
-13.936935 -16.016525 -0.230362 0.484291 100 112 115
-13.934097 -16.013321 -0.175369 0.484779 105 116 115
-13.936234 -16.015793 -0.120071 0.482155 115 123 129
-14.404160 -16.553085 -0.068161 0.484474 135 148 140
-14.404526 -16.553543 -0.011093 0.485206 132 143 138
-14.406418 -16.555740 0.045822 0.484596 139 150 142
-14.412247 -16.562424 0.102127 0.483558 133 146 141
-14.409592 -16.559341 0.159134 0.491798 138 149 144
-14.408890 -16.558548 0.215652 0.484901 127 139 133
-14.406418 -16.555740 0.272110 0.484108 130 142 140
-14.410477 -16.560410 0.329361 0.484596 128 142 137
-14.409256 -16.559006 0.385788 0.485145 134 145 140
-14.410904 -16.560898 0.442551 0.484596 150 161 159
-14.411240 -16.561264 0.499374 0.491920 137 149 148
-14.411453 -16.561539 0.555801 0.484962 139 151 149
-14.412613 -16.562912 0.613022 0.484901 144 157 154
-14.407394 -16.556931 0.669296 0.485390 118 131 128
-14.414261 -16.564835 0.726364 0.484535 123 134 132
-14.410843 -16.560898 0.783463 0.484474 133 144 140
-14.408127 -16.557755 0.839706 0.489540 141 154 152
-14.408188 -16.557816 0.896133 0.484169 131 144 141
-14.410934 -16.560928 0.953873 0.485084 153 165 161
-14.413254 -16.563614 1.010239 0.490211 147 160 155
-14.410690 -16.560654 1.067276 0.484901 134 146 143
-14.414413 -16.564957 1.124680 0.497169 133 146 140
-14.406235 -16.555557 1.179794 0.484962 128 141 136
-14.412033 -16.562241 1.236343 0.484840 145 157 154
-14.412918 -16.563248 1.292404 0.492714 142 154 152
-14.408096 -16.557693 1.347275 0.495338 133 146 144
-14.410812 -16.560837 1.403427 0.484840 132 145 145
-14.415939 -16.566757 1.462814 0.495338 139 153 154
-14.414810 -16.565475 1.517929 0.484657 133 143 141
-6.875473 -7.867569 -1.719101 0.421607 71 69 74
-6.979355 -7.986191 -1.716171 0.419226 63 63 64
-7.087814 -8.110092 -1.715561 0.423255 68 66 71
-7.202072 -8.240585 -1.713547 0.420996 72 67 73
-7.321518 -8.377029 -1.712112 0.420874 89 85 92
-7.448074 -8.521561 -1.711258 0.415686 90 86 91
-7.578506 -8.670517 -1.710373 0.406592 61 59 63
-7.712753 -8.823837 -1.709885 0.414343 61 60 63
-7.840988 -8.970291 -1.707169 0.416846 58 55 61
-7.978409 -9.127274 -1.705673 0.418738 63 60 63
-8.118118 -9.286850 -1.704178 0.450294 87 80 84
-8.263809 -9.453232 -1.702072 0.420142 63 61 68
-8.419144 -9.630630 -1.700272 0.414527 61 56 59
-8.580917 -9.815445 -1.698959 0.412879 45 43 48
-8.741562 -9.998917 -1.695847 0.410803 49 45 47
-8.897690 -10.177292 -1.690567 0.413001 63 57 59
-9.087387 -10.393936 -1.690506 0.415137 50 47 50
-9.274521 -10.607712 -1.688461 0.411963 48 42 46
-9.458725 -10.818069 -1.684433 0.414099 55 49 49
-9.643143 -11.028732 -1.679031 0.419715 52 46 46
-9.866287 -11.283646 -1.678543 0.411841 43 41 42
-10.092239 -11.541763 -1.677048 0.413245 47 43 45
-10.347275 -11.833054 -1.678360 0.413550 40 34 36
-10.579453 -12.098282 -1.674118 0.410437 25 21 22
-10.862595 -12.421677 -1.675827 0.414099 16 11 15
-10.886276 -12.448746 -1.636612 0.415869 17 12 16
-10.842972 -12.399277 -1.587326 0.413245 17 12 16
-10.736282 -12.277451 -1.529160 0.417090 18 13 17
-10.500320 -12.008011 -1.453842 0.389441 28 23 27
-10.547226 -12.061569 -1.418686 0.395911 19 15 16
-10.545578 -12.059738 -1.376877 0.396582 19 14 18
-10.532547 -12.044876 -1.333145 0.398169 19 14 18
-10.522995 -12.033981 -1.290726 0.391028 18 13 17
-10.493607 -12.000412 -1.245743 0.385107 21 16 22
-10.503372 -12.011581 -1.205338 0.396094 22 17 21
-10.504684 -12.013107 -1.164413 0.392554 19 18 23
-10.524429 -12.035721 -1.124741 0.383825 21 18 25
-10.580887 -12.100235 -1.089096 0.405310 27 23 24
0 0 0 0.500000 0 0 0
-10.661209 -12.192032 -1.013351 0.608423 46 46 48
-10.588821 -12.109360 -0.964890 0.388769 22 21 26
0 0 0 0.500000 0 0 0
0 0 0 0.500000 0 0 0
-13.987808 -15.991837 -1.109207 0.482704 86 92 88
-13.990189 -15.994522 -1.054489 0.484169 90 96 94
-13.988663 -15.992844 -0.999161 0.482521 94 100 98
-13.990036 -15.994461 -0.944382 0.482094 94 99 95
-13.991928 -15.996597 -0.889603 0.480262 92 94 91
-13.992630 -15.997421 -0.834641 0.483192 97 101 100
-13.990433 -15.994949 -0.779373 0.483375 93 103 105
-13.988632 -15.992935 -0.724472 0.483253 91 99 101
-13.980881 -15.984116 -0.669388 0.484535 93 103 104
-13.983780 -15.987473 -0.614120 0.484413 97 104 106
-13.981491 -15.984879 -0.559372 0.484962 97 109 109
-13.982620 -15.986191 -0.504654 0.484169 103 115 116
-13.982224 -15.985764 -0.449265 0.484779 97 108 108
-13.984329 -15.988174 -0.394943 0.485084 95 104 105
-13.981308 -15.984726 -0.340042 0.484657 96 106 110
-13.982437 -15.986038 -0.284561 0.484718 92 103 103
-13.983994 -15.987839 -0.230484 0.484535 101 110 112
-13.982895 -15.986618 -0.175461 0.485206 98 109 110
-13.988266 -15.992783 -0.120163 0.479286 100 105 107
-14.440079 -16.508865 -0.067886 0.485145 140 156 150
-14.442825 -16.512039 -0.010971 0.486610 141 157 149
-14.443069 -16.512314 0.045761 0.483314 124 134 129
-14.442307 -16.511490 0.102005 0.484718 120 132 124
-14.440384 -16.509323 0.159164 0.486305 123 135 129
-14.445084 -16.514755 0.215652 0.484413 130 141 140
-14.445114 -16.514786 0.272018 0.484901 130 143 138
-14.445938 -16.515701 0.329208 0.487404 130 143 136
-14.440567 -16.509567 0.385483 0.486305 139 150 145
-14.445175 -16.514816 0.442429 0.485023 140 151 148
-14.446548 -16.516403 0.499130 0.484474 133 148 142
-14.445724 -16.515488 0.555527 0.483803 133 145 144
-14.446701 -16.516617 0.612686 0.488746 144 154 149
-14.445633 -16.515427 0.669235 0.484230 130 142 138
-14.447006 -16.516953 0.725784 0.484718 130 142 140
-14.442703 -16.512070 0.782791 0.485023 132 145 140
-14.447739 -16.517776 0.839523 0.484962 143 158 156
-14.446854 -16.516800 0.896011 0.484657 132 149 146
-14.447128 -16.517136 0.953445 0.484962 131 145 145
-14.447037 -16.517075 1.009689 0.484657 144 160 157
-14.449142 -16.519455 1.066940 0.484352 125 138 137
-14.450089 -16.520554 1.124283 0.484291 126 139 138
-14.447098 -16.517105 1.179581 0.485023 117 130 126
-14.448135 -16.518234 1.235764 0.484657 125 139 137
-14.444748 -16.514389 1.291428 0.483986 120 132 128
-14.448959 -16.519272 1.347336 0.484230 120 131 130
-14.449081 -16.519394 1.403030 0.484718 119 133 133
-14.448410 -16.518600 1.461716 0.493996 136 150 154
-14.447037 -16.517044 1.516861 0.488197 133 145 145
-6.895096 -7.849442 -1.718948 0.430274 70 67 71
-7.004654 -7.973923 -1.717300 0.414893 63 61 65
-7.108231 -8.091568 -1.715500 0.443946 66 65 70
-7.224503 -8.223679 -1.713882 0.444068 64 62 67
-7.343765 -8.359207 -1.712265 0.417639 95 89 95
-7.469223 -8.501785 -1.711136 0.417456 87 86 89
-7.600906 -8.651382 -1.710464 0.415503 68 69 72
-7.734055 -8.802689 -1.709671 0.415259 67 62 69
-7.857895 -8.943375 -1.705765 0.418189 59 57 61
-7.997787 -9.102341 -1.704727 0.442298 56 54 58
-8.139206 -9.263016 -1.703537 0.450355 95 90 95
-8.287582 -9.431656 -1.702011 0.416663 69 64 69
-8.447403 -9.613266 -1.701035 0.417029 60 54 57
-8.599533 -9.786118 -1.697678 0.415259 50 45 50
-8.755264 -9.963089 -1.693619 0.414466 46 43 46
-8.927139 -10.158401 -1.691238 0.410559 62 59 57
-9.113815 -10.370529 -1.690414 0.418250 55 50 53
-9.299545 -10.581619 -1.687820 0.413855 48 42 47
-9.485641 -10.793076 -1.684219 0.419471 51 46 47
-9.673538 -11.006577 -1.679367 0.413245 49 45 47
-9.890732 -11.253403 -1.677841 0.416358 46 41 44
-10.124924 -11.519516 -1.677628 0.414282 47 42 43
-10.373764 -11.802292 -1.677933 0.413855 36 32 31
-10.607162 -12.067551 -1.673691 0.410864 22 17 21
-10.889603 -12.388504 -1.675186 0.415076 17 12 16
-10.903854 -12.404678 -1.634445 0.409949 17 12 16
-10.862991 -12.358292 -1.585587 0.439429 16 11 15
-10.752243 -12.232468 -1.527145 0.420996 17 12 16
-10.490097 -11.934647 -1.448105 0.395605 21 19 24
-10.552963 -12.006088 -1.415115 0.404700 17 15 18
-10.544968 -11.997025 -1.372757 0.391272 18 13 17
0 0 0 0.500000 0 0 0
-10.562119 -12.016586 -1.291733 0.430945 22 17 21
-10.499130 -11.944992 -1.242691 0.397314 21 19 24
-10.501511 -11.947708 -1.201492 0.398535 20 18 23
-10.506027 -11.952896 -1.161148 0.393957 22 21 27
-10.517624 -11.966080 -1.120804 0.394934 20 18 23
-10.589523 -12.047775 -1.086777 0.397742 24 24 26
0 0 0 0.500000 0 0 0
-10.630173 -12.094040 -1.007462 0.579004 29 23 23
-10.587570 -12.045639 -0.961899 0.395239 22 21 29
0 0 0 0.500000 0 0 0
0 0 0 0.500000 0 0 0
0 0 0 0.500000 0 0 0
-14.149704 -16.093613 -1.063461 0.419165 84 88 89
-14.149948 -16.093948 -1.007767 0.416419 88 92 91
-14.154953 -16.099655 -0.952652 0.420630 90 94 95
-14.152786 -16.097244 -0.897263 0.417151 84 90 88
-14.155319 -16.100113 -0.841965 0.419898 83 85 84
-14.152939 -16.097458 -0.786179 0.420752 86 92 92
-14.150467 -16.094711 -0.730606 0.421424 82 88 88
-14.149094 -16.093155 -0.675217 0.419043 83 89 89
-14.143723 -16.087082 -0.619217 0.420569 81 90 89
-14.143723 -16.087112 -0.564255 0.419409 87 93 93
-14.146713 -16.090500 -0.509171 0.421424 84 92 91
-14.146744 -16.090561 -0.453171 0.419104 81 88 90
-14.145859 -16.089584 -0.398361 0.417945 75 81 79
-14.152267 -16.096939 -0.343124 0.421485 65 69 70
-14.149490 -16.093826 -0.287064 0.486061 84 94 102
-14.160141 -16.105972 -0.232468 0.456397 129 148 154
-14.153549 -16.098465 -0.176956 0.416663 96 101 103
-14.157181 -16.102615 -0.121323 0.418372 94 108 105
-14.477005 -16.466080 -0.067917 0.488502 142 157 155
-14.475510 -16.464401 -0.010849 0.492958 139 153 149
-14.473984 -16.462662 0.045761 0.484901 132 144 135
-14.478867 -16.468277 0.101852 0.484840 144 161 155
-14.479233 -16.468674 0.158951 0.485023 126 139 135
-14.481522 -16.471268 0.215561 0.484840 121 136 130
-14.475723 -16.464676 0.272079 0.484535 132 147 144
-14.481613 -16.471390 0.329147 0.484901 133 144 140
-14.479660 -16.469193 0.385422 0.484291 132 144 144
-14.476822 -16.465988 0.442154 0.485817 143 157 152
-14.477982 -16.467331 0.498886 0.486244 129 142 138
-14.479111 -16.468674 0.555191 0.484779 135 149 148
-14.485397 -16.475815 0.612564 0.483864 130 145 137
-14.480759 -16.470505 0.668930 0.483680 125 137 134
-14.482529 -16.472519 0.725632 0.501854 131 141 136
-14.478195 -16.467606 0.782425 0.484474 129 142 138
-14.479355 -16.468948 0.838821 0.484657 137 152 148
-14.478531 -16.468033 0.895309 0.484169 131 144 142
-14.480972 -16.470810 0.953018 0.499855 134 146 144
-14.479324 -16.468887 1.009048 0.494301 143 156 153
-14.481796 -16.471695 1.066330 0.484291 128 141 139
-14.480118 -16.469772 1.123367 0.493751 130 143 141
-14.483292 -16.473404 1.179276 0.484718 128 141 138
-14.485184 -16.475632 1.235397 0.494606 134 148 147
-14.483994 -16.474258 1.291245 0.484840 126 136 136
-14.483994 -16.474228 1.346695 0.484535 124 135 134
-14.480515 -16.470261 1.402023 0.483619 117 128 124
-14.482285 -16.472305 1.460983 0.485145 129 143 142
-14.478561 -16.468094 1.515823 0.489540 131 141 142
-6.914383 -7.831039 -1.718796 0.415320 61 58 63
-7.022141 -7.952866 -1.716660 0.420020 63 60 66
-7.127213 -8.071609 -1.715103 0.418006 68 67 72
-7.245163 -8.204971 -1.713852 0.424536 63 59 64
-7.369614 -8.345627 -1.713364 0.444434 85 80 85
-7.487778 -8.479202 -1.710342 0.422644 89 87 89
-7.623703 -8.632858 -1.710464 0.419715 71 70 73
-7.755569 -8.781937 -1.709366 0.413062 68 65 69
-7.886612 -8.930069 -1.706985 0.417151 69 63 66
-8.019669 -9.080490 -1.704391 0.430274 63 57 60
-8.168289 -9.248489 -1.704575 0.447547 93 85 88
-8.310745 -9.409531 -1.701797 0.416724 66 63 65
-8.466049 -9.585098 -1.699844 0.419959 54 49 55
-8.630295 -9.770798 -1.698776 0.413367 49 46 50
-8.780716 -9.940842 -1.693558 0.418494 50 46 48
-8.949814 -10.132034 -1.690659 0.412085 64 57 60
-9.132156 -10.338150 -1.689072 0.412085 55 50 50
-9.321243 -10.551895 -1.686996 0.416602 49 43 43
-9.521072 -10.777817 -1.685562 0.413428 52 48 49
-9.700089 -10.980209 -1.679092 0.413001 48 43 46
-9.929947 -11.240067 -1.679642 0.413611 48 44 46
-10.153214 -11.492508 -1.677414 0.417151 45 40 41
-10.406937 -11.779373 -1.678360 0.411902 36 32 33
-10.644638 -12.048050 -1.674667 0.412695 21 16 22
-10.917007 -12.356033 -1.674454 0.416541 17 12 16
-10.917130 -12.356186 -1.631760 0.416907 17 12 16
-10.879074 -12.313156 -1.583328 0.419043 17 12 16
-10.720108 -12.133499 -1.518234 0.406104 17 12 16
-10.485336 -11.868088 -1.443314 0.397192 20 21 26
-10.547348 -11.938217 -1.410263 0.401953 16 14 17
-10.543777 -11.934219 -1.368607 0.398779 19 14 18
-10.534470 -11.923691 -1.325638 0.411536 18 13 17
-10.491776 -11.875443 -1.279587 0.400854 20 18 23
-10.503891 -11.889175 -1.239792 0.397436 22 19 26
-10.495316 -11.879501 -1.197342 0.402564 23 18 25
-10.505356 -11.890884 -1.157639 0.393591 21 20 28
-10.524185 -11.912216 -1.118179 0.395300 20 18 23
0 0 0 0.500000 0 0 0
-10.605087 -12.003738 -1.044052 0.413672 38 34 33
0 0 0 0.500000 0 0 0
0 0 0 0.500000 0 0 0
0 0 0 0.500000 0 0 0
0 0 0 0.500000 0 0 0
0 0 0 0.500000 0 0 0
-14.408066 -16.303207 -1.079697 0.446754 92 96 97
-14.405930 -16.300797 -1.023056 0.455543 96 100 99
-14.407547 -16.302628 -0.966934 0.454688 98 102 103
-14.398972 -16.292984 -0.910049 0.451270 82 88 84
-14.387680 -16.280258 -0.853165 0.421912 64 66 65
-14.395645 -16.289291 -0.797256 0.449256 100 105 99
-14.384262 -16.276413 -0.740555 0.442847 93 97 96
-14.382584 -16.274551 -0.684494 0.451942 80 84 83
-14.383713 -16.275894 -0.627945 0.440772 79 85 83
-14.384689 -16.276993 -0.572159 0.445289 83 89 87
-14.390793 -16.283951 -0.516373 0.449561 83 87 86
-14.387650 -16.280411 -0.459427 0.445716 81 84 87
-14.387161 -16.279861 -0.403732 0.445960 80 86 84
-14.396286 -16.290207 -0.348099 0.451942 78 82 81
-14.170639 -16.035110 -0.286697 0.485512 104 112 114
-14.177902 -16.043320 -0.232101 0.484230 154 169 166
-14.401291 -16.295883 -0.179459 0.448402 90 100 101
-14.409378 -16.305038 -0.122971 0.455848 109 118 117
-14.512863 -16.422073 -0.067825 0.484291 134 148 145
-14.514572 -16.424026 -0.010941 0.492775 128 142 138
-14.509964 -16.418869 0.045792 0.484901 131 144 134
-14.510452 -16.419388 0.101852 0.494789 137 148 146
-14.515579 -16.425186 0.159012 0.484840 129 140 133
-14.515152 -16.424698 0.215500 0.484169 128 141 136
-14.514725 -16.424271 0.271896 0.485145 140 155 154
-14.518204 -16.428238 0.329025 0.484413 138 152 148
-14.511978 -16.421219 0.385117 0.484352 136 149 144
-14.512131 -16.421371 0.441849 0.485023 139 152 149
-14.515305 -16.424973 0.498703 0.484901 131 144 141
-14.512558 -16.421860 0.554886 0.484535 139 153 152
-14.518723 -16.428818 0.612015 0.488380 136 149 149
-14.511490 -16.420639 0.668350 0.485084 125 139 136
-14.512680 -16.422043 0.725052 0.485145 130 143 142
-14.515152 -16.424850 0.782455 0.484474 140 154 152
-14.512558 -16.421921 0.838547 0.484962 141 154 150
-14.515762 -16.425522 0.895187 0.484901 130 142 140
-14.518509 -16.428635 0.952744 0.484413 128 140 139
-14.517471 -16.427444 1.008896 0.484535 151 169 163
-14.518692 -16.428848 1.065964 0.484596 127 141 136
-14.514694 -16.424362 1.122757 0.492409 126 139 135
-14.514175 -16.423813 1.178299 0.485206 129 143 142
-14.518417 -16.428574 1.234695 0.496559 140 155 153
-14.515213 -16.424942 1.290298 0.484352 120 129 129
-14.515366 -16.425095 1.345688 0.484535 122 133 132
-14.519333 -16.429611 1.401779 0.484413 122 130 131
-14.517319 -16.427353 1.460342 0.498695 139 148 153
-14.520309 -16.430771 1.515732 0.484962 129 141 142
-6.934006 -7.812851 -1.718674 0.416602 57 55 58
-7.045609 -7.938309 -1.717361 0.418799 69 63 69
-7.152634 -8.058701 -1.716171 0.418799 67 63 68
-7.263931 -8.183823 -1.713242 0.417578 64 62 66
-7.388504 -8.323929 -1.712723 0.416907 77 73 80
-7.512192 -8.463028 -1.711014 0.422278 101 97 101
-7.646103 -8.613632 -1.710648 0.420813 66 64 68
-7.777023 -8.760880 -1.709152 0.438392 70 68 73
-7.904770 -8.904526 -1.706070 0.416724 71 71 75
-8.038406 -9.054794 -1.703445 0.445228 64 60 64
-8.184982 -9.219650 -1.703171 0.414588 93 86 89
-8.337692 -9.391403 -1.702286 0.417273 79 76 79
-8.496750 -9.570267 -1.701065 0.414343 54 50 52
-8.653061 -9.746078 -1.698380 0.414588 46 44 47
-8.808334 -9.920731 -1.693985 0.415869 54 47 50
-8.975479 -10.108719 -1.690536 0.410193 55 50 51
-9.152817 -10.308151 -1.687881 0.415076 55 50 50
-9.346451 -10.525925 -1.686600 0.410193 51 46 44
-9.540054 -10.743668 -1.684036 0.411963 52 48 50
-9.726456 -10.953323 -1.678726 0.414527 46 42 44
-9.951553 -11.206497 -1.678329 0.450111 48 44 45
-10.177750 -11.460922 -1.676620 0.415198 43 39 41
-10.421341 -11.734879 -1.675827 0.412390 34 30 31
-10.673630 -12.018631 -1.674362 0.415564 20 16 17
-10.954880 -12.334946 -1.675369 0.415015 17 12 16
-10.938858 -12.316940 -1.630295 0.423255 15 10 14
-10.904404 -12.278214 -1.582352 0.414832 16 11 15
-10.733505 -12.086075 -1.515610 0.408850 18 13 17
0 0 0 0.500000 0 0 0
0 0 0 0.500000 0 0 0
-10.532547 -11.860123 -1.363174 0.392432 19 14 18
-10.529556 -11.856766 -1.321152 0.404517 18 13 17
-10.501144 -11.824844 -1.276871 0.406897 22 20 25
-10.504684 -11.828842 -1.236313 0.400427 22 16 26
-10.501846 -11.825699 -1.194717 0.401709 21 18 29
-10.515762 -11.841385 -1.155441 0.398596 24 23 31
0 0 0 0.500000 0 0 0
0 0 0 0.500000 0 0 0
0 0 0 0.500000 0 0 0
0 0 0 0.500000 0 0 0
0 0 0 0.500000 0 0 0
0 0 0 0.500000 0 0 0
0 0 0 0.500000 0 0 0
0 0 0 0.500000 0 0 0
0 0 0 0.500000 0 0 0
-14.544510 -16.372696 -1.029770 0.485023 125 135 124
-14.543686 -16.371811 -0.973160 0.484657 137 146 141
-14.543564 -16.371689 -0.916550 0.484474 120 129 124
-14.542130 -16.370132 -0.859879 0.491371 122 132 124
-14.545029 -16.373428 -0.803177 0.484718 117 124 117
-14.542343 -16.370407 -0.746536 0.490883 116 123 116
-14.547226 -16.375870 -0.690292 0.483131 118 124 122
-14.543259 -16.371475 -0.633011 0.484169 104 110 108
-14.545364 -16.373856 -0.576645 0.484352 115 126 120
-14.549118 -16.378159 -0.520401 0.484291 111 123 121
-14.541855 -16.369980 -0.462997 0.485084 117 126 123
-14.544785 -16.373276 -0.407059 0.484230 113 119 115
-14.549149 -16.378220 -0.350693 0.484779 113 125 123
-14.269211 -16.063400 -0.287888 0.487831 50 52 55
-14.238510 -16.028915 -0.232437 0.455482 114 125 119
-14.546585 -16.375473 -0.180710 0.484413 129 141 137
-14.550522 -16.379898 -0.123764 0.493141 135 149 143
-14.548782 -16.378006 -0.067795 0.484535 135 147 138
-14.547165 -16.376175 -0.010880 0.483864 131 142 137
-14.547409 -16.376450 0.045822 0.495155 138 150 144
-14.552475 -16.382156 0.101944 0.504662 134 146 144
-14.548141 -16.377335 0.159012 0.484596 130 140 134
-14.549545 -16.378922 0.215378 0.484352 134 146 139
-14.551468 -16.381119 0.271805 0.484718 122 133 129
-14.551682 -16.381363 0.328842 0.483680 126 137 130
-14.546188 -16.375168 0.385056 0.485023 136 148 145
-14.549576 -16.378983 0.441696 0.485390 136 150 142
-14.550583 -16.380112 0.498489 0.484779 132 143 139
-14.550797 -16.380386 0.554916 0.492714 131 144 137
-14.551712 -16.381454 0.611954 0.492653 173 187 183
-14.555435 -16.385696 0.668503 0.496193 153 172 166
-14.549911 -16.379501 0.724716 0.497414 165 178 172
-14.548782 -16.378220 0.781845 0.501183 154 170 166
-14.549149 -16.378586 0.838272 0.491615 148 161 160
-14.551987 -16.381821 0.894760 0.484596 134 148 147
-14.552200 -16.382065 0.952225 0.490394 137 153 153
-14.551376 -16.381149 1.008438 0.493202 145 157 156
-14.553177 -16.383194 1.065506 0.485512 150 163 161
-14.554184 -16.384293 1.122543 0.497475 136 151 149
-14.553268 -16.383224 1.178055 0.495155 134 147 145
-14.552628 -16.382462 1.233994 0.498939 135 150 149
-14.555008 -16.385178 1.290146 0.484840 119 131 130
-14.554123 -16.384232 1.345474 0.484901 122 131 129
-14.550888 -16.380630 1.400772 0.486366 122 132 129
-14.550735 -16.380478 1.459549 0.485756 152 167 164
-14.555313 -16.385635 1.515213 0.493629 140 154 150
-6.957596 -7.799088 -1.719467 0.414038 54 49 53
-7.066269 -7.920639 -1.717453 0.438025 71 69 73
-7.173447 -8.040543 -1.716202 0.421302 72 69 74
-7.287949 -8.168655 -1.713943 0.421057 69 66 72
-7.408310 -8.303299 -1.712357 0.419043 76 69 73
-7.531509 -8.441177 -1.710495 0.419654 79 78 82
-7.665237 -8.590775 -1.710007 0.421546 69 68 73
-7.800156 -8.741714 -1.709335 0.424048 73 68 73
-7.930435 -8.887466 -1.706558 0.419532 79 72 78
-8.067032 -9.040329 -1.704636 0.438819 69 66 71
-8.213425 -9.204147 -1.704147 0.413611 99 96 92
-8.356796 -9.364578 -1.701309 0.444129 87 84 84
-8.521011 -9.548294 -1.701004 0.414710 61 57 60
-8.682022 -9.728439 -1.699142 0.408789 48 44 46
-8.833450 -9.897873 -1.693893 0.411719 53 48 50
-9.003433 -10.088089 -1.690903 0.412940 55 51 54
-9.179550 -10.285141 -1.687820 0.413123 51 45 45
-9.370468 -10.498764 -1.686172 0.416541 48 44 45
-9.571152 -10.723343 -1.684769 0.411536 49 45 46
-9.754501 -10.928482 -1.678818 0.411658 50 45 46
-9.978622 -11.179245 -1.678085 0.415259 53 48 49
-10.206131 -11.433823 -1.676285 0.411780 49 45 46
-10.445297 -11.701401 -1.674698 0.414527 34 30 31
-10.711624 -11.999435 -1.675491 0.414649 18 14 15
-10.973465 -12.292435 -1.673355 0.429480 15 10 14
-10.983871 -12.304123 -1.632248 0.412451 15 10 14
-10.962143 -12.279831 -1.586136 0.414160 16 11 15
-10.528641 -11.794815 -1.482468 0.415015 17 12 16
-10.486954 -11.748184 -1.435135 0.391272 25 23 28
-10.536911 -11.804092 -1.400681 0.409522 20 18 21
-10.535141 -11.802139 -1.359634 0.407630 21 17 18
-10.528580 -11.794815 -1.317307 0.401831 20 15 19
-10.507065 -11.770767 -1.273941 0.408545 22 20 25
-10.513321 -11.777786 -1.233688 0.405798 21 22 27
-10.520126 -11.785416 -1.193222 0.408789 23 22 28
-10.530502 -11.797043 -1.153671 0.400183 20 24 33
-10.544785 -11.813034 -1.113846 0.400244 19 19 19
-10.552139 -11.821335 -1.073502 0.397864 18 17 25
-10.562424 -11.832870 -1.033859 0.395483 22 19 26
-10.575974 -11.848068 -0.993668 0.398962 24 23 29
0 0 0 0.500000 0 0 0
0 0 0 0.500000 0 0 0
0 0 0 0.500000 0 0 0
0 0 0 0.500000 0 0 0
0 0 0 0.500000 0 0 0
-14.577133 -16.325241 -1.029129 0.493446 104 109 112
-14.578476 -16.326797 -0.972672 0.485145 150 160 151
-14.581253 -16.329910 -0.916367 0.483619 133 143 142
-14.577652 -16.325882 -0.859451 0.484596 143 154 146
-14.580124 -16.328690 -0.802750 0.498939 136 147 143
-14.582565 -16.331467 -0.746262 0.483619 123 134 130
-14.579239 -16.327805 -0.689713 0.482887 116 127 121
-14.578171 -16.326614 -0.632614 0.482338 111 120 115
-14.578476 -16.327011 -0.576431 0.484535 134 147 140
-14.583359 -16.332504 -0.520157 0.485084 128 144 141
-14.583755 -16.332962 -0.463120 0.484474 132 144 140
-14.581741 -16.330734 -0.406937 0.485084 128 137 132
-14.581833 -16.330826 -0.350388 0.485023 139 152 148
-14.581436 -16.330429 -0.293198 0.480140 114 119 113
-14.587204 -16.336899 -0.237289 0.481422 133 151 137
-14.581833 -16.330917 -0.180588 0.484230 120 135 128
-14.585098 -16.334579 -0.123764 0.484108 126 138 134
-14.584152 -16.333511 -0.067795 0.485084 130 141 134
-14.584946 -16.334427 -0.010788 0.484535 130 141 133
-14.584702 -16.334183 0.045700 0.492409 147 159 152
-14.584091 -16.333511 0.101822 0.485206 135 146 141
-14.584000 -16.333481 0.158920 0.483742 126 137 130
-14.588211 -16.338181 0.215439 0.484474 128 138 134
-14.584396 -16.333908 0.271683 0.484657 132 146 143
-14.583450 -16.332870 0.328690 0.484718 142 153 148
-14.581650 -16.330826 0.384964 0.485267 129 140 137
-14.587906 -16.337875 0.441788 0.497047 149 162 157
-14.589554 -16.339706 0.498398 0.503502 130 144 141
-14.589767 -16.339981 0.554733 0.498207 139 153 148
-14.589249 -16.339401 0.611710 0.484291 140 155 154
-14.588486 -16.338516 0.668228 0.484352 134 148 145
-14.587662 -16.337601 0.724808 0.484413 131 148 143
-14.584885 -16.334518 0.781570 0.484657 128 142 136
-14.585281 -16.334946 0.837845 0.484108 140 156 153
-14.585556 -16.335281 0.894302 0.498878 142 155 154
-14.583481 -16.332993 0.951492 0.485145 141 156 154
-14.589706 -16.339981 1.008102 0.484779 151 164 164
-14.583206 -16.332657 1.064713 0.484901 135 149 146
-14.586960 -16.336868 1.121994 0.484718 136 149 147
-14.589279 -16.339462 1.177811 0.485267 124 136 132
-14.590256 -16.340561 1.233749 0.495155 147 160 157
-14.587692 -16.337723 1.289322 0.485939 124 137 134
-14.584885 -16.334579 1.344528 0.484901 130 139 137
-14.588699 -16.338882 1.400528 0.487160 118 129 128
-14.589951 -16.340256 1.459213 0.492592 143 158 158
-14.588730 -16.338882 1.514206 0.492775 133 146 144
-6.980118 -7.784409 -1.720139 0.413550 58 55 60
-7.088272 -7.904770 -1.717728 0.414771 67 66 70
-7.194351 -8.022873 -1.716293 0.442054 72 72 76
-7.311417 -8.153183 -1.714554 0.422278 73 69 75
-7.431717 -8.287064 -1.712875 0.420813 77 70 77
-7.556961 -8.426468 -1.711319 0.423438 82 80 83
-7.693192 -8.578110 -1.711380 0.426368 68 67 71
-7.820847 -8.720200 -1.709030 0.442786 70 66 70
-7.960403 -8.875565 -1.708176 0.428626 78 73 76
-8.092392 -9.022476 -1.705093 0.423133 68 66 70
-8.230576 -9.176315 -1.702927 0.415503 85 75 75
-8.381363 -9.344131 -1.701523 0.422339 90 88 90
-8.540909 -9.521744 -1.700089 0.413062 57 54 56
-8.711197 -9.711288 -1.699905 0.413855 48 45 47
-8.861740 -9.878860 -1.694412 0.414343 64 61 65
-9.022690 -10.058060 -1.689713 0.412329 50 49 47
-9.200058 -10.255569 -1.686905 0.417456 48 46 47
-9.401505 -10.479813 -1.686844 0.414160 50 46 47
-9.597000 -10.697433 -1.684402 0.413184 48 44 45
-9.782120 -10.903488 -1.678818 0.416236 50 45 47
-10.003891 -11.150375 -1.677567 0.418860 52 48 49
-10.227859 -11.399704 -1.675217 0.412390 46 42 43
-10.468735 -11.667862 -1.673721 0.415381 33 29 30
-10.746262 -11.976822 -1.676102 0.413367 19 14 18
-11.017319 -12.278580 -1.675339 0.415930 17 12 16
-11.063004 -12.329453 -1.639297 0.413245 16 11 15
-11.085068 -12.354019 -1.599350 0.450111 16 11 17
-10.547287 -11.755417 -1.480820 0.395056 17 12 18
-10.506577 -11.710129 -1.433670 0.414160 20 21 26
-10.545517 -11.753525 -1.397842 0.402625 22 20 25
-10.539871 -11.747299 -1.356308 0.413367 24 19 25
-10.539169 -11.746536 -1.315109 0.395117 24 22 27
-10.522049 -11.727463 -1.272141 0.412695 23 21 24
-10.527756 -11.733841 -1.231705 0.410437 22 20 33
-10.534195 -11.741013 -1.191299 0.412818 27 33 31
-10.542007 -11.749771 -1.151657 0.405737 46 26 53
-10.544815 -11.752914 -1.110764 0.401770 45 67 65
-10.556931 -11.766464 -1.070969 0.400916 64 74 73
-10.565750 -11.776291 -1.031174 0.397375 43 44 46
-10.580551 -11.792770 -0.991104 0.401465 27 27 39
0 0 0 0.500000 0 0 0
0 0 0 0.500000 0 0 0
0 0 0 0.500000 0 0 0
0 0 0 0.500000 0 0 0
0 0 0 0.500000 0 0 0
0 0 0 0.500000 0 0 0
-14.617050 -16.286484 -0.972427 0.495644 158 168 157
-14.616684 -16.286087 -0.915726 0.484352 138 147 142
